30.0,-6.0,16.0,49.193554,0.0010761103,1.9930132E7
30.0,-6.0,18.0,47.640217,0.001042131,1.9300818E7
30.0,-6.0,20.0,46.408894,0.0010151959,1.8801964E7
30.0,-6.0,22.0,44.95828,9.834636E-4,1.8214266E7
30.0,-6.0,24.0,43.47409,9.5099694E-4,1.7612966E7
30.0,-6.0,26.0,42.113316,9.212299E-4,1.7061664E7
30.0,-6.0,28.0,40.674953,8.897658E-4,1.6478932E7
30.0,-6.0,30.0,39.619556,8.6667895E-4,1.6051352E7
30.0,-4.0,-30.0,0,0,0
30.0,-4.0,-28.0,58.67659,0.001283552,2.3772062E7
30.0,-4.0,-26.0,60.70299,0.0013278796,2.4593032E7
30.0,-4.0,-24.0,62.536243,0.001367982,2.533575E7
30.0,-4.0,-22.0,64.746666,0.0014163351,2.6231276E7
30.0,-4.0,-20.0,66.702354,0.0014591158,2.7023596E7
30.0,-4.0,-18.0,68.67024,0.0015021635,2.7820862E7
30.0,-4.0,-16.0,70.69573,0.0015464711,2.8641464E7
30.0,-4.0,-14.0,72.3575,0.0015828223,2.9314704E7
30.0,-4.0,-12.0,74.37967,0.0016270574,3.0133962E7
30.0,-4.0,-10.0,76.216515,0.0016672383,3.0878134E7
30.0,-4.0,-8.0,77.35037,0.0016920414,3.1337502E7
30.0,-4.0,-6.0,78.717545,0.0017219484,3.1891394E7
30.0,-4.0,-4.0,79.60086,0.0017412711,3.2249262E7
30.0,-4.0,-2.0,79.955124,0.0017490207,3.2392786E7
30.0,-4.0,0.0,80.22574,0.0017549401,3.250242E7
30.0,-4.0,2.0,79.9565,0.0017490506,3.239334E7
30.0,-4.0,4.0,79.60403,0.0017413403,3.2250542E7
30.0,-4.0,6.0,78.720245,0.0017220075,3.1892488E7
30.0,-4.0,8.0,77.35511,0.0016921451,3.1339422E7
30.0,-4.0,10.0,76.22332,0.0016673873,3.0880894E7
30.0,-4.0,12.0,74.38288,0.0016271275,3.0135262E7
30.0,-4.0,14.0,72.357056,0.0015828126,2.9314526E7
30.0,-4.0,16.0,70.686714,0.0015462738,2.8637808E7
30.0,-4.0,18.0,68.66295,0.001502004,2.7817908E7
30.0,-4.0,20.0,66.69645,0.0014589867,2.7021204E7
30.0,-4.0,22.0,64.72943,0.0014159582,2.6224292E7
30.0,-4.0,24.0,62.514545,0.0013675074,2.532696E7
30.0,-4.0,26.0,60.684753,0.0013274807,2.4585644E7
30.0,-4.0,28.0,58.659405,0.0012831761,2.37651E7
30.0,-4.0,30.0,57.087887,0.0012487991,2.312842E7
30.0,-2.0,-30.0,0,0,0
30.0,-2.0,-28.0,72.37177,0.0015831345,2.9320488E7
30.0,-2.0,-26.0,74.83187,0.0016369493,3.0317166E7
30.0,-2.0,-24.0,77.18244,0.001688368,3.126947E7
30.0,-2.0,-22.0,79.78913,0.0017453894,3.2325536E7
30.0,-2.0,-20.0,82.1402,0.001796819,3.3278038E7
30.0,-2.0,-18.0,84.662766,0.0018520004,3.4300028E7
30.0,-2.0,-16.0,86.908394,0.0019011236,3.5209812E7
30.0,-2.0,-14.0,89.1703,0.0019506027,3.6126196E7
30.0,-2.0,-12.0,91.72409,0.0020064672,3.7160832E7
30.0,-2.0,-10.0,93.816246,0.002052233,3.800844E7
30.0,-2.0,-8.0,95.332275,0.0020853963,3.862264E7
30.0,-2.0,-6.0,96.99017,0.0021216627,3.9294316E7
30.0,-2.0,-4.0,98.05814,0.0021450247,3.9726988E7
30.0,-2.0,-2.0,98.53874,0.0021555377,3.9921696E7
30.0,-2.0,0.0,98.86911,0.0021627645,4.005554E7
30.0,-2.0,2.0,98.54113,0.0021555899,3.9922664E7
30.0,-2.0,4.0,98.06246,0.002145119,3.972874E7
30.0,-2.0,6.0,96.99286,0.0021217214,3.9295404E7
30.0,-2.0,8.0,95.33847,0.0020855316,3.8625148E7
30.0,-2.0,10.0,93.82436,0.0020524105,3.8011728E7
30.0,-2.0,12.0,91.72665,0.0020065228,3.7161864E7
30.0,-2.0,14.0,89.17097,0.0019506174,3.6126464E7
30.0,-2.0,16.0,86.89874,0.0019009124,3.5205904E7
30.0,-2.0,18.0,84.65423,0.0018518135,3.4296564E7
30.0,-2.0,20.0,82.12893,0.0017965727,3.3273476E7
30.0,-2.0,22.0,79.77396,0.0017450575,3.2319388E7
30.0,-2.0,24.0,77.158035,0.0016878342,3.125958E7
30.0,-2.0,26.0,74.81108,0.0016364945,3.0308742E7
30.0,-2.0,28.0,72.35083,0.0015826763,2.9312002E7
30.0,-2.0,30.0,70.388,0.0015397394,2.8516788E7
30.0,0.0,-30.0,0,0,0
30.0,0.0,-28.0,76.48154,0.0016730357,3.0985506E7
30.0,0.0,-26.0,79.12199,0.0017307957,3.2055252E7
30.0,0.0,-24.0,81.69882,0.0017871639,3.309922E7
30.0,0.0,-22.0,84.47715,0.00184794,3.4224824E7
30.0,0.0,-20.0,87.00822,0.001903307,3.5250252E7
30.0,0.0,-18.0,89.61993,0.0019604384,3.6308356E7
30.0,0.0,-16.0,92.09742,0.0020146337,3.731208E7
30.0,0.0,-14.0,94.44577,0.0020660039,3.8263484E7
30.0,0.0,-12.0,97.06844,0.002123375,3.9326024E7
30.0,0.0,-10.0,99.318115,0.0021725865,4.0237448E7
30.0,0.0,-8.0,101.02614,0.0022099495,4.0929432E7
30.0,0.0,-6.0,102.68277,0.0022461885,4.1600596E7
30.0,0.0,-4.0,103.73114,0.0022691216,4.2025332E7
30.0,0.0,-2.0,104.37907,0.002283295,4.2287828E7
30.0,0.0,0.0,104.73216,0.002291019,4.2430884E7
30.0,0.0,2.0,104.37898,0.002283293,4.2287796E7
30.0,0.0,4.0,103.73392,0.0022691821,4.2026456E7
30.0,0.0,6.0,102.68893,0.002246323,4.1603092E7
30.0,0.0,8.0,101.03161,0.0022100692,4.0931652E7
30.0,0.0,10.0,99.32551,0.002172748,4.0240444E7
30.0,0.0,12.0,97.07498,0.002123518,3.9328672E7
30.0,0.0,14.0,94.44617,0.0020660125,3.8263644E7
30.0,0.0,16.0,92.09115,0.0020144964,3.7309536E7
30.0,0.0,18.0,89.608894,0.001960197,3.6303884E7
30.0,0.0,20.0,86.99212,0.001902955,3.5243732E7
30.0,0.0,22.0,84.45614,0.0018474804,3.4216312E7
30.0,0.0,24.0,81.67685,0.0017866835,3.3090322E7
30.0,0.0,26.0,79.097534,0.0017302608,3.2045344E7
30.0,0.0,28.0,76.460785,0.0016725818,3.0977098E7
30.0,0.0,30.0,74.53575,0.0016304717,3.0197196E7
30.0,2.0,-30.0,0,0,0
30.0,2.0,-28.0,71.39226,0.0015617077,2.8923652E7
30.0,2.0,-26.0,73.678986,0.00161173,2.985009E7
30.0,2.0,-24.0,76.397675,0.0016712013,3.0951532E7
30.0,2.0,-22.0,78.82865,0.0017243789,3.193641E7
30.0,2.0,-20.0,81.33134,0.0017791252,3.295034E7
30.0,2.0,-18.0,83.55625,0.0018277953,3.3851736E7
30.0,2.0,-16.0,86.138435,0.0018842807,3.4897872E7
30.0,2.0,-14.0,88.377426,0.0019332586,3.5804972E7
30.0,2.0,-12.0,90.67006,0.00198341,3.67338E7
30.0,2.0,-10.0,92.423965,0.0020217767,3.7444376E7
30.0,2.0,-8.0,94.39954,0.0020649927,3.8244756E7
30.0,2.0,-6.0,95.76384,0.0020948367,3.8797484E7
30.0,2.0,-4.0,96.77254,0.0021169018,3.920614E7
30.0,2.0,-2.0,97.38791,0.0021303634,3.9455452E7
30.0,2.0,0.0,97.743256,0.0021381364,3.9599416E7
30.0,2.0,2.0,97.38894,0.0021303857,3.9455868E7
30.0,2.0,4.0,96.7756,0.0021169689,3.9207384E7
30.0,2.0,6.0,95.76934,0.002094957,3.8799712E7
30.0,2.0,8.0,94.40488,0.0020651093,3.8246916E7
30.0,2.0,10.0,92.43201,0.0020219528,3.7447632E7
30.0,2.0,12.0,90.674515,0.0019835075,3.6735608E7
30.0,2.0,14.0,88.37763,0.0019332631,3.5805056E7
30.0,2.0,16.0,86.1295,0.0018840851,3.4894252E7
30.0,2.0,18.0,83.54681,0.0018275887,3.3847908E7
30.0,2.0,20.0,81.32108,0.001778901,3.2946188E7
30.0,2.0,22.0,78.8084,0.001723936,3.1928204E7
30.0,2.0,24.0,76.37275,0.0016706559,3.0941432E7
30.0,2.0,26.0,73.65613,0.0016112297,2.9840828E7
30.0,2.0,28.0,71.37213,0.0015612674,2.8915498E7
30.0,2.0,30.0,69.59783,0.0015224545,2.8196662E7
30.0,4.0,-30.0,0,0,0
30.0,4.0,-28.0,56.661636,0.0012394749,2.295573E7
30.0,4.0,-26.0,58.6411,0.0012827758,2.3757686E7
30.0,4.0,-24.0,60.47739,0.0013229446,2.4501634E7
30.0,4.0,-22.0,62.64199,0.0013702953,2.5378592E7
30.0,4.0,-20.0,64.62677,0.0014137124,2.61827E7
30.0,4.0,-18.0,66.37753,0.0014520104,2.6892E7
30.0,4.0,-16.0,68.57716,0.0015001274,2.7783152E7
30.0,4.0,-14.0,70.1768,0.0015351195,2.8431224E7
30.0,4.0,-12.0,71.9414,0.00157372,2.9146126E7
30.0,4.0,-10.0,73.736725,0.001612993,2.9873482E7
30.0,4.0,-8.0,74.90158,0.0016384741,3.0345406E7
30.0,4.0,-6.0,76.11005,0.0016649094,3.0835002E7
30.0,4.0,-4.0,76.89562,0.0016820938,3.1153266E7
30.0,4.0,-2.0,77.39239,0.0016929607,3.1354526E7
30.0,4.0,0.0,77.68884,0.0016994455,3.147463E7
30.0,4.0,2.0,77.39395,0.0016929948,3.135516E7
30.0,4.0,4.0,76.898125,0.0016821485,3.115428E7
30.0,4.0,6.0,76.11401,0.0016649961,3.083661E7
30.0,4.0,8.0,74.90533,0.0016385561,3.0346926E7
30.0,4.0,10.0,73.742905,0.0016131281,2.9875986E7
30.0,4.0,12.0,71.94831,0.0015738714,2.914893E7
30.0,4.0,14.0,70.17646,0.0015351119,2.8431084E7
30.0,4.0,16.0,68.57178,0.0015000094,2.7780968E7
30.0,4.0,18.0,66.36887,0.0014518208,2.688849E7
30.0,4.0,20.0,64.617966,0.0014135198,2.6179134E7
30.0,4.0,22.0,62.620605,0.0013698274,2.5369928E7
30.0,4.0,24.0,60.459656,0.0013225566,2.4494448E7
30.0,4.0,26.0,58.622055,0.001282359,2.3749968E7
30.0,4.0,28.0,56.646027,0.0012391334,2.2949404E7
30.0,4.0,30.0,55.296764,0.0012096182,2.2402768E7
30.0,6.0,-30.0,0,0,0
30.0,6.0,-28.0,38.764187,8.479677E-4,1.570481E7
30.0,6.0,-26.0,39.84346,8.715768E-4,1.6142062E7
30.0,6.0,-24.0,41.562927,9.0919016E-4,1.6838682E7
30.0,6.0,-22.0,42.79341,9.36107E-4,1.7337198E7
30.0,6.0,-20.0,44.197388,9.6681906E-4,1.7906E7
30.0,6.0,-18.0,45.32658,9.915201E-4,1.8363478E7
30.0,6.0,-16.0,46.808243,0.0010239317,1.8963754E7
30.0,6.0,-14.0,48.114567,0.0010525075,1.9492996E7
30.0,6.0,-12.0,49.286602,0.0010781458,1.996783E7
30.0,6.0,-10.0,49.98738,0.0010934754,2.0251742E7
30.0,6.0,-8.0,51.3959,0.0011242868,2.0822386E7
30.0,6.0,-6.0,51.9764,0.0011369851,2.1057566E7
30.0,6.0,-4.0,52.539604,0.0011493053,2.1285742E7
30.0,6.0,-2.0,52.869015,0.0011565111,2.1419198E7
30.0,6.0,0.0,53.029766,0.0011600276,2.1484324E7
30.0,6.0,2.0,52.870293,0.0011565391,2.1419716E7
30.0,6.0,4.0,52.542168,0.0011493614,2.128678E7
30.0,6.0,6.0,51.979393,0.0011370507,2.105878E7
30.0,6.0,8.0,51.39891,0.0011243526,2.0823604E7
30.0,6.0,10.0,49.991528,0.0010935661,2.0253422E7
30.0,6.0,12.0,49.28783,0.0010781727,1.9968328E7
30.0,6.0,14.0,48.114502,0.001052506,1.9492968E7
30.0,6.0,16.0,46.803864,0.0010238359,1.896198E7
30.0,6.0,18.0,45.32056,9.913886E-4,1.836104E7
30.0,6.0,20.0,44.190636,9.6667133E-4,1.7903264E7
30.0,6.0,22.0,42.783005,9.358794E-4,1.7332982E7
30.0,6.0,24.0,41.548687,9.0887863E-4,1.6832914E7
30.0,6.0,26.0,39.83128,8.7131036E-4,1.6137128E7
30.0,6.0,28.0,38.75258,8.4771373E-4,1.5700107E7
30.0,6.0,30.0,37.82425,8.274065E-4,1.5324006E7
30.0,8.0,-30.0,0,0,0
30.0,8.0,-28.0,23.073053,5.047237E-4,9347749.0
30.0,8.0,-26.0,23.70646,5.185795E-4,9604366.0
30.0,8.0,-24.0,24.520012,5.363759E-4,9933966.0
30.0,8.0,-22.0,25.229736,5.519012E-4,1.0221502E7
30.0,8.0,-20.0,26.01902,5.691668E-4,1.054127E7
30.0,8.0,-18.0,26.73159,5.847543E-4,1.0829958E7
30.0,8.0,-16.0,27.4965,6.014867E-4,1.1139852E7
30.0,8.0,-14.0,28.467682,6.2273134E-4,1.1533313E7
30.0,8.0,-12.0,29.095016,6.3645426E-4,1.178747E7
30.0,8.0,-10.0,29.59599,6.474131E-4,1.1990432E7
30.0,8.0,-8.0,30.174559,6.600693E-4,1.2224832E7
30.0,8.0,-6.0,30.690506,6.713557E-4,1.2433862E7
30.0,8.0,-4.0,31.08401,6.7996356E-4,1.2593285E7
30.0,8.0,-2.0,31.140654,6.812027E-4,1.2616233E7
30.0,8.0,0.0,31.214508,6.8281824E-4,1.2646154E7
30.0,8.0,2.0,31.140736,6.812045E-4,1.2616267E7
30.0,8.0,4.0,31.084608,6.7997666E-4,1.2593527E7
30.0,8.0,6.0,30.690681,6.7135954E-4,1.2433933E7
30.0,8.0,8.0,30.175709,6.6009443E-4,1.2225298E7
30.0,8.0,10.0,29.597126,6.47438E-4,1.1990893E7
30.0,8.0,12.0,29.096066,6.3647726E-4,1.1787895E7
30.0,8.0,14.0,28.467604,6.2272965E-4,1.1533282E7
30.0,8.0,16.0,27.49333,6.014173E-4,1.1138567E7
30.0,8.0,18.0,26.729181,5.8470154E-4,1.0828982E7
30.0,8.0,20.0,26.016504,5.691117E-4,1.054025E7
30.0,8.0,22.0,25.223248,5.5175927E-4,1.0218873E7
30.0,8.0,24.0,24.514454,5.362544E-4,9931714.0
30.0,8.0,26.0,23.699766,5.1843305E-4,9601654.0
30.0,8.0,28.0,23.066813,5.045872E-4,9345221.0
30.0,8.0,30.0,22.272537,4.8721238E-4,9023431.0
30.0,10.0,-30.0,0,0,0
30.0,10.0,-28.0,11.470347,2.5091416E-4,4647063.0
30.0,10.0,-26.0,11.866786,2.5958626E-4,4807675.0
30.0,10.0,-24.0,12.012035,2.627636E-4,4866521.0
30.0,10.0,-22.0,12.460505,2.7257387E-4,5048212.5
30.0,10.0,-20.0,12.72641,2.7839057E-4,5155940.5
30.0,10.0,-18.0,13.244017,2.8971324E-4,5365642.5
30.0,10.0,-16.0,13.50668,2.95459E-4,5472057.0
30.0,10.0,-14.0,13.811956,3.0213693E-4,5595736.0
30.0,10.0,-12.0,14.27779,3.1232706E-4,5784462.0
30.0,10.0,-10.0,14.715111,3.2189346E-4,5961637.0
30.0,10.0,-8.0,14.694704,3.2144706E-4,5953369.5
30.0,10.0,-6.0,15.21225,3.327684E-4,6163046.5
30.0,10.0,-4.0,15.420563,3.3732524E-4,6247442.0
30.0,10.0,-2.0,15.359219,3.3598332E-4,6222589.0
30.0,10.0,0.0,15.3322525,3.3539344E-4,6211663.5
30.0,10.0,2.0,15.3611355,3.3602526E-4,6223365.5
30.0,10.0,4.0,15.4219055,3.373546E-4,6247985.5
30.0,10.0,6.0,15.213038,3.3278562E-4,6163366.0
30.0,10.0,8.0,14.695131,3.214564E-4,5953542.5
30.0,10.0,10.0,14.717304,3.2194145E-4,5962525.5
30.0,10.0,12.0,14.277151,3.123131E-4,5784203.5
30.0,10.0,14.0,13.811538,3.0212777E-4,5595566.0
30.0,10.0,16.0,13.503237,2.9538368E-4,5470662.0
30.0,10.0,18.0,13.242578,2.8968175E-4,5365059.0
30.0,10.0,20.0,12.7271385,2.7840651E-4,5156235.5
30.0,10.0,22.0,12.454601,2.7244474E-4,5045820.5
30.0,10.0,24.0,12.003414,2.6257502E-4,4863028.0
30.0,10.0,26.0,11.862328,2.5948876E-4,4805869.0
30.0,10.0,28.0,11.466605,2.5083232E-4,4645547.0
30.0,10.0,30.0,11.006977,2.4077792E-4,4459334.5
30.0,12.0,-30.0,0,0,0
30.0,12.0,-28.0,4.4979224,9.839218E-5,1822275.1
30.0,12.0,-26.0,4.2824364,9.3678405E-5,1734973.6
30.0,12.0,-24.0,4.736865,1.0361905E-4,1919079.6
30.0,12.0,-22.0,4.807202,1.0515767E-4,1947575.6
30.0,12.0,-20.0,4.904787,1.0729235E-4,1987111.0
30.0,12.0,-18.0,5.1537247,1.1273787E-4,2087965.0
30.0,12.0,-16.0,5.257851,1.1501563E-4,2130150.2
30.0,12.0,-14.0,5.3394003,1.1679953E-4,2163189.0
30.0,12.0,-12.0,5.572957,1.2190859E-4,2257811.5
30.0,12.0,-10.0,5.576382,1.2198352E-4,2259199.2
30.0,12.0,-8.0,5.781958,1.264805E-4,2342485.8
30.0,12.0,-6.0,5.9325037,1.2977367E-4,2403477.0
30.0,12.0,-4.0,5.8862157,1.2876112E-4,2384724.2
30.0,12.0,-2.0,6.078127,1.3295919E-4,2462474.5
30.0,12.0,0.0,6.0833855,1.3307422E-4,2464605.0
30.0,12.0,2.0,6.077169,1.3293824E-4,2462086.5
30.0,12.0,4.0,5.8860517,1.2875754E-4,2384657.8
30.0,12.0,6.0,5.934449,1.2981624E-4,2404265.2
30.0,12.0,8.0,5.782669,1.2649604E-4,2342773.8
30.0,12.0,10.0,5.578219,1.22023695E-4,2259943.2
30.0,12.0,12.0,5.5736604,1.2192398E-4,2258096.5
30.0,12.0,14.0,5.34044,1.16822266E-4,2163610.0
30.0,12.0,16.0,5.259813,1.15058545E-4,2130945.2
30.0,12.0,18.0,5.1533513,1.127297E-4,2087813.8
30.0,12.0,20.0,4.9021583,1.07234846E-4,1986046.0
30.0,12.0,22.0,4.8086405,1.05189145E-4,1948158.6
30.0,12.0,24.0,4.7364135,1.0360918E-4,1918896.8
30.0,12.0,26.0,4.282038,9.36697E-5,1734812.4
30.0,12.0,28.0,4.498882,9.841316E-5,1822663.8
30.0,12.0,30.0,4.0433116,8.844755E-5,1638095.5
30.0,14.0,-30.0,0,0,0
30.0,14.0,-28.0,2.2812006,4.990133E-5,924199.0
30.0,14.0,-26.0,2.4183762,5.2902044E-5,979773.8
30.0,14.0,-24.0,2.3166049,5.0675797E-5,938542.5
30.0,14.0,-22.0,2.4584842,5.3779408E-5,996023.06
30.0,14.0,-20.0,2.7176402,5.9448455E-5,1101016.8
30.0,14.0,-18.0,2.6914914,5.887645E-5,1090422.9
30.0,14.0,-16.0,2.9535859,6.4609776E-5,1196607.1
30.0,14.0,-14.0,2.5260506,5.5257427E-5,1023396.75
30.0,14.0,-12.0,2.868614,6.275101E-5,1162181.9
30.0,14.0,-10.0,2.8983173,6.3400774E-5,1174215.9
30.0,14.0,-8.0,2.806026,6.138189E-5,1136825.1
30.0,14.0,-6.0,3.1038635,6.78971E-5,1257490.1
30.0,14.0,-4.0,3.0639977,6.702504E-5,1241339.1
30.0,14.0,-2.0,3.1546118,6.900723E-5,1278050.2
30.0,14.0,0.0,3.1518033,6.894578E-5,1276912.4
30.0,14.0,2.0,3.1543913,6.9002395E-5,1277960.9
30.0,14.0,4.0,3.0644517,6.703496E-5,1241523.0
30.0,14.0,6.0,3.1026227,6.786996E-5,1256987.5
30.0,14.0,8.0,2.805863,6.137833E-5,1136759.1
30.0,14.0,10.0,2.8971882,6.337607E-5,1173758.4
30.0,14.0,12.0,2.86946,6.276952E-5,1162524.8
30.0,14.0,14.0,2.5256379,5.5248398E-5,1023229.5
30.0,14.0,16.0,2.9538066,6.461461E-5,1196696.6
30.0,14.0,18.0,2.6911392,5.8868747E-5,1090280.2
30.0,14.0,20.0,2.7145693,5.938128E-5,1099772.6
30.0,14.0,22.0,2.4525418,5.3649423E-5,993615.6
30.0,14.0,24.0,2.316899,5.068223E-5,938661.7
30.0,14.0,26.0,2.4180973,5.2895943E-5,979660.8
30.0,14.0,28.0,2.2808092,4.9892766E-5,924040.4
30.0,14.0,30.0,1.9127737,4.1841977E-5,774935.56
30.0,16.0,-30.0,0,0,0
30.0,16.0,-28.0,1.232947,2.6970749E-5,499512.53
30.0,16.0,-26.0,1.6520584,3.6138823E-5,669310.06
30.0,16.0,-24.0,1.5889559,3.4758454E-5,643744.94
30.0,16.0,-22.0,1.6729449,3.6595717E-5,677772.0
30.0,16.0,-20.0,1.7166221,3.7551155E-5,695467.25
30.0,16.0,-18.0,1.8649654,4.079617E-5,755566.6
30.0,16.0,-16.0,1.7360829,3.797686E-5,703351.56
30.0,16.0,-14.0,1.956564,4.2799893E-5,792676.6
30.0,16.0,-12.0,2.009191,4.395111E-5,813997.8
30.0,16.0,-10.0,2.1273882,4.6536676E-5,861883.8
30.0,16.0,-8.0,1.9780777,4.3270502E-5,801392.56
30.0,16.0,-6.0,2.0600836,4.5064386E-5,834616.2
30.0,16.0,-4.0,2.0968525,4.5868706E-5,849512.7
30.0,16.0,-2.0,2.1562352,4.71677E-5,873570.8
30.0,16.0,0.0,2.2184122,4.852783E-5,898761.0
30.0,16.0,2.0,2.1563277,4.7169728E-5,873608.3
30.0,16.0,4.0,2.096681,4.586496E-5,849443.3
30.0,16.0,6.0,2.0580351,4.5019577E-5,833786.3
30.0,16.0,8.0,1.9781442,4.327196E-5,801419.56
30.0,16.0,10.0,2.128103,4.655231E-5,862173.44
30.0,16.0,12.0,2.0075042,4.3914213E-5,813314.44
30.0,16.0,14.0,1.9566526,4.2801832E-5,792712.5
30.0,16.0,16.0,1.7359666,3.7974318E-5,703304.44
30.0,16.0,18.0,1.864815,4.079288E-5,755505.7
30.0,16.0,20.0,1.7183721,3.7589438E-5,696176.25
30.0,16.0,22.0,1.6753964,3.6649344E-5,678765.2
30.0,16.0,24.0,1.5882883,3.474385E-5,643474.5
30.0,16.0,26.0,1.6528738,3.615666E-5,669640.44
30.0,16.0,28.0,1.2323495,2.695768E-5,499270.47
30.0,16.0,30.0,1.3946439,3.0507874E-5,565021.94
30.0,18.0,-30.0,0,0,0
30.0,18.0,-28.0,0,0,0
30.0,18.0,-26.0,0,0,0
30.0,18.0,-24.0,0,0,0
30.0,18.0,-22.0,0,0,0
30.0,18.0,-20.0,0,0,0
30.0,18.0,-18.0,0,0,0
30.0,18.0,-16.0,0,0,0
30.0,18.0,-14.0,0,0,0
30.0,18.0,-12.0,0,0,0
30.0,18.0,-10.0,0,0,0
30.0,18.0,-8.0,0,0,0
30.0,18.0,-6.0,0,0,0
30.0,18.0,-4.0,0,0,0
30.0,18.0,-2.0,0,0,0
30.0,18.0,0.0,0,0,0
30.0,18.0,2.0,0,0,0
30.0,18.0,4.0,0,0,0
30.0,18.0,6.0,0,0,0
30.0,18.0,8.0,0,0,0
30.0,18.0,10.0,0,0,0
30.0,18.0,12.0,0,0,0
30.0,18.0,14.0,0,0,0
30.0,18.0,16.0,0,0,0
30.0,18.0,18.0,0,0,0
30.0,18.0,20.0,0,0,0
30.0,18.0,22.0,0,0,0
30.0,18.0,24.0,0,0,0
30.0,18.0,26.0,0,0,0
30.0,18.0,28.0,0,0,0
30.0,18.0,30.0,0,0,0
30.0,20.0,-30.0,0,0,0
30.0,20.0,-28.0,0,0,0
30.0,20.0,-26.0,0,0,0
30.0,20.0,-24.0,0,0,0
30.0,20.0,-22.0,0,0,0
30.0,20.0,-20.0,0,0,0
30.0,20.0,-18.0,0,0,0
30.0,20.0,-16.0,0,0,0
30.0,20.0,-14.0,0,0,0
30.0,20.0,-12.0,0,0,0
30.0,20.0,-10.0,0,0,0
30.0,20.0,-8.0,0,0,0
30.0,20.0,-6.0,0,0,0
30.0,20.0,-4.0,0,0,0
30.0,20.0,-2.0,0,0,0
30.0,20.0,0.0,0,0,0
30.0,20.0,2.0,0,0,0
30.0,20.0,4.0,0,0,0
30.0,20.0,6.0,0,0,0
30.0,20.0,8.0,0,0,0
30.0,20.0,10.0,0,0,0
30.0,20.0,12.0,0,0,0
30.0,20.0,14.0,0,0,0
30.0,20.0,16.0,0,0,0
30.0,20.0,18.0,0,0,0
30.0,20.0,20.0,0,0,0
30.0,20.0,22.0,0,0,0
30.0,20.0,24.0,0,0,0
30.0,20.0,26.0,0,0,0
30.0,20.0,28.0,0,0,0
30.0,20.0,30.0,0,0,0
30.0,22.0,-30.0,0,0,0
30.0,22.0,-28.0,0,0,0
30.0,22.0,-26.0,0,0,0
30.0,22.0,-24.0,0,0,0
30.0,22.0,-22.0,0,0,0
30.0,22.0,-20.0,0,0,0
30.0,22.0,-18.0,0,0,0
30.0,22.0,-16.0,0,0,0
30.0,22.0,-14.0,0,0,0
30.0,22.0,-12.0,0,0,0
30.0,22.0,-10.0,0,0,0
30.0,22.0,-8.0,0,0,0
30.0,22.0,-6.0,0,0,0
30.0,22.0,-4.0,0,0,0
30.0,22.0,-2.0,0,0,0
30.0,22.0,0.0,0,0,0
30.0,22.0,2.0,0,0,0
30.0,22.0,4.0,0,0,0
30.0,22.0,6.0,0,0,0
30.0,22.0,8.0,0,0,0
30.0,22.0,10.0,0,0,0
30.0,22.0,12.0,0,0,0
30.0,22.0,14.0,0,0,0
30.0,22.0,16.0,0,0,0
30.0,22.0,18.0,0,0,0
30.0,22.0,20.0,0,0,0
30.0,22.0,22.0,0,0,0
30.0,22.0,24.0,0,0,0
30.0,22.0,26.0,0,0,0
30.0,22.0,28.0,0,0,0
30.0,22.0,30.0,0,0,0
30.0,24.0,-30.0,0,0,0
30.0,24.0,-28.0,0,0,0
30.0,24.0,-26.0,0,0,0
30.0,24.0,-24.0,0,0,0
30.0,24.0,-22.0,0,0,0
30.0,24.0,-20.0,0,0,0
30.0,24.0,-18.0,0,0,0
30.0,24.0,-16.0,0,0,0
30.0,24.0,-14.0,0,0,0
30.0,24.0,-12.0,0,0,0
30.0,24.0,-10.0,0,0,0
30.0,24.0,-8.0,0,0,0
30.0,24.0,-6.0,0,0,0
30.0,24.0,-4.0,0,0,0
30.0,24.0,-2.0,0,0,0
30.0,24.0,0.0,0,0,0
30.0,24.0,2.0,0,0,0
30.0,24.0,4.0,0,0,0
30.0,24.0,6.0,0,0,0
30.0,24.0,8.0,0,0,0
30.0,24.0,10.0,0,0,0
30.0,24.0,12.0,0,0,0
30.0,24.0,14.0,0,0,0
30.0,24.0,16.0,0,0,0
30.0,24.0,18.0,0,0,0
30.0,24.0,20.0,0,0,0
30.0,24.0,22.0,0,0,0
30.0,24.0,24.0,0,0,0
30.0,24.0,26.0,0,0,0
30.0,24.0,28.0,0,0,0
30.0,24.0,30.0,0,0,0
30.0,26.0,-30.0,0,0,0
30.0,26.0,-28.0,0,0,0
30.0,26.0,-26.0,0,0,0
30.0,26.0,-24.0,0,0,0
30.0,26.0,-22.0,0,0,0
30.0,26.0,-20.0,0,0,0
30.0,26.0,-18.0,0,0,0
30.0,26.0,-16.0,0,0,0
30.0,26.0,-14.0,0,0,0
30.0,26.0,-12.0,0,0,0
30.0,26.0,-10.0,0,0,0
30.0,26.0,-8.0,0,0,0
30.0,26.0,-6.0,0,0,0
30.0,26.0,-4.0,0,0,0
30.0,26.0,-2.0,0,0,0
30.0,26.0,0.0,0,0,0
30.0,26.0,2.0,0,0,0
30.0,26.0,4.0,0,0,0
30.0,26.0,6.0,0,0,0
30.0,26.0,8.0,0,0,0
30.0,26.0,10.0,0,0,0
30.0,26.0,12.0,0,0,0
30.0,26.0,14.0,0,0,0
30.0,26.0,16.0,0,0,0
30.0,26.0,18.0,0,0,0
30.0,26.0,20.0,0,0,0
30.0,26.0,22.0,0,0,0
30.0,26.0,24.0,0,0,0
30.0,26.0,26.0,0,0,0
30.0,26.0,28.0,0,0,0
30.0,26.0,30.0,0,0,0
30.0,28.0,-30.0,0,0,0
30.0,28.0,-28.0,0,0,0
30.0,28.0,-26.0,0,0,0
30.0,28.0,-24.0,0,0,0
30.0,28.0,-22.0,0,0,0
30.0,28.0,-20.0,0,0,0
30.0,28.0,-18.0,0,0,0
30.0,28.0,-16.0,0,0,0
30.0,28.0,-14.0,0,0,0
30.0,28.0,-12.0,0,0,0
30.0,28.0,-10.0,0,0,0
30.0,28.0,-8.0,0,0,0
30.0,28.0,-6.0,0,0,0
30.0,28.0,-4.0,0,0,0
30.0,28.0,-2.0,0,0,0
30.0,28.0,0.0,0,0,0
30.0,28.0,2.0,0,0,0
30.0,28.0,4.0,0,0,0
30.0,28.0,6.0,0,0,0
30.0,28.0,8.0,0,0,0
30.0,28.0,10.0,0,0,0
30.0,28.0,12.0,0,0,0
30.0,28.0,14.0,0,0,0
30.0,28.0,16.0,0,0,0
30.0,28.0,18.0,0,0,0
30.0,28.0,20.0,0,0,0
30.0,28.0,22.0,0,0,0
30.0,28.0,24.0,0,0,0
30.0,28.0,26.0,0,0,0
30.0,28.0,28.0,0,0,0
30.0,28.0,30.0,0,0,0
30.0,30.0,-30.0,0,0,0
30.0,30.0,-28.0,0,0,0
30.0,30.0,-26.0,0,0,0
30.0,30.0,-24.0,0,0,0
30.0,30.0,-22.0,0,0,0
30.0,30.0,-20.0,0,0,0
30.0,30.0,-18.0,0,0,0
30.0,30.0,-16.0,0,0,0
30.0,30.0,-14.0,0,0,0
30.0,30.0,-12.0,0,0,0
30.0,30.0,-10.0,0,0,0
30.0,30.0,-8.0,0,0,0
30.0,30.0,-6.0,0,0,0
30.0,30.0,-4.0,0,0,0
30.0,30.0,-2.0,0,0,0
30.0,30.0,0.0,0,0,0
30.0,30.0,2.0,0,0,0
30.0,30.0,4.0,0,0,0
30.0,30.0,6.0,0,0,0
30.0,30.0,8.0,0,0,0
30.0,30.0,10.0,0,0,0
30.0,30.0,12.0,0,0,0
30.0,30.0,14.0,0,0,0
30.0,30.0,16.0,0,0,0
30.0,30.0,18.0,0,0,0
30.0,30.0,20.0,0,0,0
30.0,30.0,22.0,0,0,0
30.0,30.0,24.0,0,0,0
30.0,30.0,26.0,0,0,0
30.0,30.0,28.0,0,0,0
30.0,30.0,30.0,0,0,0
30.0,32.0,-30.0,0,0,0
30.0,32.0,-28.0,0,0,0
30.0,32.0,-26.0,0,0,0
30.0,32.0,-24.0,0,0,0
30.0,32.0,-22.0,0,0,0
30.0,32.0,-20.0,0,0,0
30.0,32.0,-18.0,0,0,0
30.0,32.0,-16.0,0,0,0
30.0,32.0,-14.0,0,0,0
30.0,32.0,-12.0,0,0,0
30.0,32.0,-10.0,0,0,0
30.0,32.0,-8.0,0,0,0
30.0,32.0,-6.0,0,0,0
30.0,32.0,-4.0,0,0,0
30.0,32.0,-2.0,0,0,0
30.0,32.0,0.0,0,0,0
30.0,32.0,2.0,0,0,0
30.0,32.0,4.0,0,0,0
30.0,32.0,6.0,0,0,0
30.0,32.0,8.0,0,0,0
30.0,32.0,10.0,0,0,0
30.0,32.0,12.0,0,0,0
30.0,32.0,14.0,0,0,0
30.0,32.0,16.0,0,0,0
30.0,32.0,18.0,0,0,0
30.0,32.0,20.0,0,0,0
30.0,32.0,22.0,0,0,0
30.0,32.0,24.0,0,0,0
30.0,32.0,26.0,0,0,0
30.0,32.0,28.0,0,0,0
30.0,32.0,30.0,0,0,0
30.0,34.0,-30.0,0,0,0
30.0,34.0,-28.0,0,0,0
30.0,34.0,-26.0,0,0,0
30.0,34.0,-24.0,0,0,0
30.0,34.0,-22.0,0,0,0
30.0,34.0,-20.0,0,0,0
30.0,34.0,-18.0,0,0,0
30.0,34.0,-16.0,0,0,0
30.0,34.0,-14.0,0,0,0
30.0,34.0,-12.0,0,0,0
30.0,34.0,-10.0,0,0,0
30.0,34.0,-8.0,0,0,0
30.0,34.0,-6.0,0,0,0
30.0,34.0,-4.0,0,0,0
30.0,34.0,-2.0,0,0,0
30.0,34.0,0.0,0,0,0
30.0,34.0,2.0,0,0,0
30.0,34.0,4.0,0,0,0
30.0,34.0,6.0,0,0,0
30.0,34.0,8.0,0,0,0
30.0,34.0,10.0,0,0,0
30.0,34.0,12.0,0,0,0
30.0,34.0,14.0,0,0,0
30.0,34.0,16.0,0,0,0
30.0,34.0,18.0,0,0,0
30.0,34.0,20.0,0,0,0
30.0,34.0,22.0,0,0,0
30.0,34.0,24.0,0,0,0
30.0,34.0,26.0,0,0,0
30.0,34.0,28.0,0,0,0
30.0,34.0,30.0,0,0,0
30.0,36.0,-30.0,0,0,0
30.0,36.0,-28.0,0,0,0
30.0,36.0,-26.0,0,0,0
30.0,36.0,-24.0,0,0,0
30.0,36.0,-22.0,0,0,0
30.0,36.0,-20.0,0,0,0
30.0,36.0,-18.0,0,0,0
30.0,36.0,-16.0,0,0,0
30.0,36.0,-14.0,0,0,0
30.0,36.0,-12.0,0,0,0
30.0,36.0,-10.0,0,0,0
30.0,36.0,-8.0,0,0,0
30.0,36.0,-6.0,0,0,0
30.0,36.0,-4.0,0,0,0
30.0,36.0,-2.0,0,0,0
30.0,36.0,0.0,0,0,0
30.0,36.0,2.0,0,0,0
30.0,36.0,4.0,0,0,0
30.0,36.0,6.0,0,0,0
30.0,36.0,8.0,0,0,0
30.0,36.0,10.0,0,0,0
30.0,36.0,12.0,0,0,0
30.0,36.0,14.0,0,0,0
30.0,36.0,16.0,0,0,0
30.0,36.0,18.0,0,0,0
30.0,36.0,20.0,0,0,0
30.0,36.0,22.0,0,0,0
30.0,36.0,24.0,0,0,0
30.0,36.0,26.0,0,0,0
30.0,36.0,28.0,0,0,0
30.0,36.0,30.0,0,0,0
30.0,38.0,-30.0,0,0,0
30.0,38.0,-28.0,0,0,0
30.0,38.0,-26.0,0,0,0
30.0,38.0,-24.0,0,0,0
30.0,38.0,-22.0,0,0,0
30.0,38.0,-20.0,0,0,0
30.0,38.0,-18.0,0,0,0
30.0,38.0,-16.0,0,0,0
30.0,38.0,-14.0,0,0,0
30.0,38.0,-12.0,0,0,0
30.0,38.0,-10.0,0,0,0
30.0,38.0,-8.0,0,0,0
30.0,38.0,-6.0,0,0,0
30.0,38.0,-4.0,0,0,0
30.0,38.0,-2.0,0,0,0
30.0,38.0,0.0,0,0,0
30.0,38.0,2.0,0,0,0
30.0,38.0,4.0,0,0,0
30.0,38.0,6.0,0,0,0
30.0,38.0,8.0,0,0,0
30.0,38.0,10.0,0,0,0
30.0,38.0,12.0,0,0,0
30.0,38.0,14.0,0,0,0
30.0,38.0,16.0,0,0,0
30.0,38.0,18.0,0,0,0
30.0,38.0,20.0,0,0,0
30.0,38.0,22.0,0,0,0
30.0,38.0,24.0,0,0,0
30.0,38.0,26.0,0,0,0
30.0,38.0,28.0,0,0,0
30.0,38.0,30.0,0,0,0
30.0,40.0,-30.0,0,0,0
30.0,40.0,-28.0,0,0,0
30.0,40.0,-26.0,0,0,0
30.0,40.0,-24.0,0,0,0
30.0,40.0,-22.0,0,0,0
30.0,40.0,-20.0,0,0,0
30.0,40.0,-18.0,0,0,0
30.0,40.0,-16.0,0,0,0
30.0,40.0,-14.0,0,0,0
30.0,40.0,-12.0,0,0,0
30.0,40.0,-10.0,0,0,0
30.0,40.0,-8.0,0,0,0
30.0,40.0,-6.0,0,0,0
30.0,40.0,-4.0,0,0,0
30.0,40.0,-2.0,0,0,0
30.0,40.0,0.0,0,0,0
30.0,40.0,2.0,0,0,0
30.0,40.0,4.0,0,0,0
30.0,40.0,6.0,0,0,0
30.0,40.0,8.0,0,0,0
30.0,40.0,10.0,0,0,0
30.0,40.0,12.0,0,0,0
30.0,40.0,14.0,0,0,0
30.0,40.0,16.0,0,0,0
30.0,40.0,18.0,0,0,0
30.0,40.0,20.0,0,0,0
30.0,40.0,22.0,0,0,0
30.0,40.0,24.0,0,0,0
30.0,40.0,26.0,0,0,0
30.0,40.0,28.0,0,0,0
30.0,40.0,30.0,0,0,0
32.0,-40.0,-30.0,0,0,0
32.0,-40.0,-28.0,0,0,0
32.0,-40.0,-26.0,0,0,0
32.0,-40.0,-24.0,0,0,0
32.0,-40.0,-22.0,0,0,0
32.0,-40.0,-20.0,0,0,0
32.0,-40.0,-18.0,0,0,0
32.0,-40.0,-16.0,0,0,0
32.0,-40.0,-14.0,0,0,0
32.0,-40.0,-12.0,0,0,0
32.0,-40.0,-10.0,0,0,0
32.0,-40.0,-8.0,0,0,0
32.0,-40.0,-6.0,0,0,0
32.0,-40.0,-4.0,0,0,0
32.0,-40.0,-2.0,0,0,0
32.0,-40.0,0.0,0,0,0
32.0,-40.0,2.0,0,0,0
32.0,-40.0,4.0,0,0,0
32.0,-40.0,6.0,0,0,0
32.0,-40.0,8.0,0,0,0
32.0,-40.0,10.0,0,0,0
32.0,-40.0,12.0,0,0,0
32.0,-40.0,14.0,0,0,0
32.0,-40.0,16.0,0,0,0
32.0,-40.0,18.0,0,0,0
32.0,-40.0,20.0,0,0,0
32.0,-40.0,22.0,0,0,0
32.0,-40.0,24.0,0,0,0
32.0,-40.0,26.0,0,0,0
32.0,-40.0,28.0,0,0,0
32.0,-40.0,30.0,0,0,0
32.0,-38.0,-30.0,0,0,0
32.0,-38.0,-28.0,0,0,0
32.0,-38.0,-26.0,0,0,0
32.0,-38.0,-24.0,0,0,0
32.0,-38.0,-22.0,0,0,0
32.0,-38.0,-20.0,0,0,0
32.0,-38.0,-18.0,0,0,0
32.0,-38.0,-16.0,0,0,0
32.0,-38.0,-14.0,0,0,0
32.0,-38.0,-12.0,0,0,0
32.0,-38.0,-10.0,0,0,0
32.0,-38.0,-8.0,0,0,0
32.0,-38.0,-6.0,0,0,0
32.0,-38.0,-4.0,0,0,0
32.0,-38.0,-2.0,0,0,0
32.0,-38.0,0.0,0,0,0
32.0,-38.0,2.0,0,0,0
32.0,-38.0,4.0,0,0,0
32.0,-38.0,6.0,0,0,0
32.0,-38.0,8.0,0,0,0
32.0,-38.0,10.0,0,0,0
32.0,-38.0,12.0,0,0,0
32.0,-38.0,14.0,0,0,0
32.0,-38.0,16.0,0,0,0
32.0,-38.0,18.0,0,0,0
32.0,-38.0,20.0,0,0,0
32.0,-38.0,22.0,0,0,0
32.0,-38.0,24.0,0,0,0
32.0,-38.0,26.0,0,0,0
32.0,-38.0,28.0,0,0,0
32.0,-38.0,30.0,0,0,0
32.0,-36.0,-30.0,0,0,0
32.0,-36.0,-28.0,0,0,0
32.0,-36.0,-26.0,0,0,0
32.0,-36.0,-24.0,0,0,0
32.0,-36.0,-22.0,0,0,0
32.0,-36.0,-20.0,0,0,0
32.0,-36.0,-18.0,0,0,0
32.0,-36.0,-16.0,0,0,0
32.0,-36.0,-14.0,0,0,0
32.0,-36.0,-12.0,0,0,0
32.0,-36.0,-10.0,0,0,0
32.0,-36.0,-8.0,0,0,0
32.0,-36.0,-6.0,0,0,0
32.0,-36.0,-4.0,0,0,0
32.0,-36.0,-2.0,0,0,0
32.0,-36.0,0.0,0,0,0
32.0,-36.0,2.0,0,0,0
32.0,-36.0,4.0,0,0,0
32.0,-36.0,6.0,0,0,0
32.0,-36.0,8.0,0,0,0
32.0,-36.0,10.0,0,0,0
32.0,-36.0,12.0,0,0,0
32.0,-36.0,14.0,0,0,0
32.0,-36.0,16.0,0,0,0
32.0,-36.0,18.0,0,0,0
32.0,-36.0,20.0,0,0,0
32.0,-36.0,22.0,0,0,0
32.0,-36.0,24.0,0,0,0
32.0,-36.0,26.0,0,0,0
32.0,-36.0,28.0,0,0,0
32.0,-36.0,30.0,0,0,0
32.0,-34.0,-30.0,0,0,0
32.0,-34.0,-28.0,0,0,0
32.0,-34.0,-26.0,0,0,0
32.0,-34.0,-24.0,0,0,0
32.0,-34.0,-22.0,0,0,0
32.0,-34.0,-20.0,0,0,0
32.0,-34.0,-18.0,0,0,0
32.0,-34.0,-16.0,0,0,0
32.0,-34.0,-14.0,0,0,0
32.0,-34.0,-12.0,0,0,0
32.0,-34.0,-10.0,0,0,0
32.0,-34.0,-8.0,0,0,0
32.0,-34.0,-6.0,0,0,0
32.0,-34.0,-4.0,0,0,0
32.0,-34.0,-2.0,0,0,0
32.0,-34.0,0.0,0,0,0
32.0,-34.0,2.0,0,0,0
32.0,-34.0,4.0,0,0,0
32.0,-34.0,6.0,0,0,0
32.0,-34.0,8.0,0,0,0
32.0,-34.0,10.0,0,0,0
32.0,-34.0,12.0,0,0,0
32.0,-34.0,14.0,0,0,0
32.0,-34.0,16.0,0,0,0
32.0,-34.0,18.0,0,0,0
32.0,-34.0,20.0,0,0,0
32.0,-34.0,22.0,0,0,0
32.0,-34.0,24.0,0,0,0
32.0,-34.0,26.0,0,0,0
32.0,-34.0,28.0,0,0,0
32.0,-34.0,30.0,0,0,0
32.0,-32.0,-30.0,0,0,0
32.0,-32.0,-28.0,0,0,0
32.0,-32.0,-26.0,0,0,0
32.0,-32.0,-24.0,0,0,0
32.0,-32.0,-22.0,0,0,0
32.0,-32.0,-20.0,0,0,0
32.0,-32.0,-18.0,0,0,0
32.0,-32.0,-16.0,0,0,0
32.0,-32.0,-14.0,0,0,0
32.0,-32.0,-12.0,0,0,0
32.0,-32.0,-10.0,0,0,0
32.0,-32.0,-8.0,0,0,0
32.0,-32.0,-6.0,0,0,0
32.0,-32.0,-4.0,0,0,0
32.0,-32.0,-2.0,0,0,0
32.0,-32.0,0.0,0,0,0
32.0,-32.0,2.0,0,0,0
32.0,-32.0,4.0,0,0,0
32.0,-32.0,6.0,0,0,0
32.0,-32.0,8.0,0,0,0
32.0,-32.0,10.0,0,0,0
32.0,-32.0,12.0,0,0,0
32.0,-32.0,14.0,0,0,0
32.0,-32.0,16.0,0,0,0
32.0,-32.0,18.0,0,0,0
32.0,-32.0,20.0,0,0,0
32.0,-32.0,22.0,0,0,0
32.0,-32.0,24.0,0,0,0
32.0,-32.0,26.0,0,0,0
32.0,-32.0,28.0,0,0,0
32.0,-32.0,30.0,0,0,0
32.0,-30.0,-30.0,0,0,0
32.0,-30.0,-28.0,0,0,0
32.0,-30.0,-26.0,0,0,0
32.0,-30.0,-24.0,0,0,0
32.0,-30.0,-22.0,0,0,0
32.0,-30.0,-20.0,0,0,0
32.0,-30.0,-18.0,0,0,0
32.0,-30.0,-16.0,0,0,0
32.0,-30.0,-14.0,0,0,0
32.0,-30.0,-12.0,0,0,0
32.0,-30.0,-10.0,0,0,0
32.0,-30.0,-8.0,0,0,0
32.0,-30.0,-6.0,0,0,0
32.0,-30.0,-4.0,0,0,0
32.0,-30.0,-2.0,0,0,0
32.0,-30.0,0.0,0,0,0
32.0,-30.0,2.0,0,0,0
32.0,-30.0,4.0,0,0,0
32.0,-30.0,6.0,0,0,0
32.0,-30.0,8.0,0,0,0
32.0,-30.0,10.0,0,0,0
32.0,-30.0,12.0,0,0,0
32.0,-30.0,14.0,0,0,0
32.0,-30.0,16.0,0,0,0
32.0,-30.0,18.0,0,0,0
32.0,-30.0,20.0,0,0,0
32.0,-30.0,22.0,0,0,0
32.0,-30.0,24.0,0,0,0
32.0,-30.0,26.0,0,0,0
32.0,-30.0,28.0,0,0,0
32.0,-30.0,30.0,0,0,0
32.0,-28.0,-30.0,0,0,0
32.0,-28.0,-28.0,0,0,0
32.0,-28.0,-26.0,0,0,0
32.0,-28.0,-24.0,0,0,0
32.0,-28.0,-22.0,0,0,0
32.0,-28.0,-20.0,0,0,0
32.0,-28.0,-18.0,0,0,0
32.0,-28.0,-16.0,0,0,0
32.0,-28.0,-14.0,0,0,0
32.0,-28.0,-12.0,0,0,0
32.0,-28.0,-10.0,0,0,0
32.0,-28.0,-8.0,0,0,0
32.0,-28.0,-6.0,0,0,0
32.0,-28.0,-4.0,0,0,0
32.0,-28.0,-2.0,0,0,0
32.0,-28.0,0.0,0,0,0
32.0,-28.0,2.0,0,0,0
32.0,-28.0,4.0,0,0,0
32.0,-28.0,6.0,0,0,0
32.0,-28.0,8.0,0,0,0
32.0,-28.0,10.0,0,0,0
32.0,-28.0,12.0,0,0,0
32.0,-28.0,14.0,0,0,0
32.0,-28.0,16.0,0,0,0
32.0,-28.0,18.0,0,0,0
32.0,-28.0,20.0,0,0,0
32.0,-28.0,22.0,0,0,0
32.0,-28.0,24.0,0,0,0
32.0,-28.0,26.0,0,0,0
32.0,-28.0,28.0,0,0,0
32.0,-28.0,30.0,0,0,0
32.0,-26.0,-30.0,0,0,0
32.0,-26.0,-28.0,0,0,0
32.0,-26.0,-26.0,0,0,0
32.0,-26.0,-24.0,0,0,0
32.0,-26.0,-22.0,0,0,0
32.0,-26.0,-20.0,0,0,0
32.0,-26.0,-18.0,0,0,0
32.0,-26.0,-16.0,0,0,0
32.0,-26.0,-14.0,0,0,0
32.0,-26.0,-12.0,0,0,0
32.0,-26.0,-10.0,0,0,0
32.0,-26.0,-8.0,0,0,0
32.0,-26.0,-6.0,0,0,0
32.0,-26.0,-4.0,0,0,0
32.0,-26.0,-2.0,0,0,0
32.0,-26.0,0.0,0,0,0
32.0,-26.0,2.0,0,0,0
32.0,-26.0,4.0,0,0,0
32.0,-26.0,6.0,0,0,0
32.0,-26.0,8.0,0,0,0
32.0,-26.0,10.0,0,0,0
32.0,-26.0,12.0,0,0,0
32.0,-26.0,14.0,0,0,0
32.0,-26.0,16.0,0,0,0
32.0,-26.0,18.0,0,0,0
32.0,-26.0,20.0,0,0,0
32.0,-26.0,22.0,0,0,0
32.0,-26.0,24.0,0,0,0
32.0,-26.0,26.0,0,0,0
32.0,-26.0,28.0,0,0,0
32.0,-26.0,30.0,0,0,0
32.0,-24.0,-30.0,0,0,0
32.0,-24.0,-28.0,0,0,0
32.0,-24.0,-26.0,0,0,0
32.0,-24.0,-24.0,0,0,0
32.0,-24.0,-22.0,0,0,0
32.0,-24.0,-20.0,0,0,0
32.0,-24.0,-18.0,0,0,0
32.0,-24.0,-16.0,0,0,0
32.0,-24.0,-14.0,0,0,0
32.0,-24.0,-12.0,0,0,0
32.0,-24.0,-10.0,0,0,0
32.0,-24.0,-8.0,0,0,0
32.0,-24.0,-6.0,0,0,0
32.0,-24.0,-4.0,0,0,0
32.0,-24.0,-2.0,0,0,0
32.0,-24.0,0.0,0,0,0
32.0,-24.0,2.0,0,0,0
32.0,-24.0,4.0,0,0,0
32.0,-24.0,6.0,0,0,0
32.0,-24.0,8.0,0,0,0
32.0,-24.0,10.0,0,0,0
32.0,-24.0,12.0,0,0,0
32.0,-24.0,14.0,0,0,0
32.0,-24.0,16.0,0,0,0
32.0,-24.0,18.0,0,0,0
32.0,-24.0,20.0,0,0,0
32.0,-24.0,22.0,0,0,0
32.0,-24.0,24.0,0,0,0
32.0,-24.0,26.0,0,0,0
32.0,-24.0,28.0,0,0,0
32.0,-24.0,30.0,0,0,0
32.0,-22.0,-30.0,0,0,0
32.0,-22.0,-28.0,0,0,0
32.0,-22.0,-26.0,0,0,0
32.0,-22.0,-24.0,0,0,0
32.0,-22.0,-22.0,0,0,0
32.0,-22.0,-20.0,0,0,0
32.0,-22.0,-18.0,0,0,0
32.0,-22.0,-16.0,0,0,0
32.0,-22.0,-14.0,0,0,0
32.0,-22.0,-12.0,0,0,0
32.0,-22.0,-10.0,0,0,0
32.0,-22.0,-8.0,0,0,0
32.0,-22.0,-6.0,0,0,0
32.0,-22.0,-4.0,0,0,0
32.0,-22.0,-2.0,0,0,0
32.0,-22.0,0.0,0,0,0
32.0,-22.0,2.0,0,0,0
32.0,-22.0,4.0,0,0,0
32.0,-22.0,6.0,0,0,0
32.0,-22.0,8.0,0,0,0
32.0,-22.0,10.0,0,0,0
32.0,-22.0,12.0,0,0,0
32.0,-22.0,14.0,0,0,0
32.0,-22.0,16.0,0,0,0
32.0,-22.0,18.0,0,0,0
32.0,-22.0,20.0,0,0,0
32.0,-22.0,22.0,0,0,0
32.0,-22.0,24.0,0,0,0
32.0,-22.0,26.0,0,0,0
32.0,-22.0,28.0,0,0,0
32.0,-22.0,30.0,0,0,0
32.0,-20.0,-30.0,0,0,0
32.0,-20.0,-28.0,0,0,0
32.0,-20.0,-26.0,0,0,0
32.0,-20.0,-24.0,0,0,0
32.0,-20.0,-22.0,0,0,0
32.0,-20.0,-20.0,0,0,0
32.0,-20.0,-18.0,0,0,0
32.0,-20.0,-16.0,0,0,0
32.0,-20.0,-14.0,0,0,0
32.0,-20.0,-12.0,0,0,0
32.0,-20.0,-10.0,0,0,0
32.0,-20.0,-8.0,0,0,0
32.0,-20.0,-6.0,0,0,0
32.0,-20.0,-4.0,0,0,0
32.0,-20.0,-2.0,0,0,0
32.0,-20.0,0.0,0,0,0
32.0,-20.0,2.0,0,0,0
32.0,-20.0,4.0,0,0,0
32.0,-20.0,6.0,0,0,0
32.0,-20.0,8.0,0,0,0
32.0,-20.0,10.0,0,0,0
32.0,-20.0,12.0,0,0,0
32.0,-20.0,14.0,0,0,0
32.0,-20.0,16.0,0,0,0
32.0,-20.0,18.0,0,0,0
32.0,-20.0,20.0,0,0,0
32.0,-20.0,22.0,0,0,0
32.0,-20.0,24.0,0,0,0
32.0,-20.0,26.0,0,0,0
32.0,-20.0,28.0,0,0,0
32.0,-20.0,30.0,0,0,0
32.0,-18.0,-30.0,0,0,0
32.0,-18.0,-28.0,0,0,0
32.0,-18.0,-26.0,0,0,0
32.0,-18.0,-24.0,0,0,0
32.0,-18.0,-22.0,0,0,0
32.0,-18.0,-20.0,0,0,0
32.0,-18.0,-18.0,0,0,0
32.0,-18.0,-16.0,0,0,0
32.0,-18.0,-14.0,0,0,0
32.0,-18.0,-12.0,0,0,0
32.0,-18.0,-10.0,0,0,0
32.0,-18.0,-8.0,0,0,0
32.0,-18.0,-6.0,0,0,0
32.0,-18.0,-4.0,0,0,0
32.0,-18.0,-2.0,0,0,0
32.0,-18.0,0.0,0,0,0
32.0,-18.0,2.0,0,0,0
32.0,-18.0,4.0,0,0,0
32.0,-18.0,6.0,0,0,0
32.0,-18.0,8.0,0,0,0
32.0,-18.0,10.0,0,0,0
32.0,-18.0,12.0,0,0,0
32.0,-18.0,14.0,0,0,0
32.0,-18.0,16.0,0,0,0
32.0,-18.0,18.0,0,0,0
32.0,-18.0,20.0,0,0,0
32.0,-18.0,22.0,0,0,0
32.0,-18.0,24.0,0,0,0
32.0,-18.0,26.0,0,0,0
32.0,-18.0,28.0,0,0,0
32.0,-18.0,30.0,0,0,0
32.0,-16.0,-30.0,0,0,0
32.0,-16.0,-28.0,1.7523142,3.833192E-5,709927.44
32.0,-16.0,-26.0,1.7664026,3.8640108E-5,715635.2
32.0,-16.0,-24.0,1.9827528,4.3372773E-5,803286.7
32.0,-16.0,-22.0,1.7704359,3.8728333E-5,717269.25
32.0,-16.0,-20.0,2.1757324,4.7594203E-5,881469.8
32.0,-16.0,-18.0,2.147314,4.6972556E-5,869956.56
32.0,-16.0,-16.0,2.2189772,4.8540187E-5,898989.94
32.0,-16.0,-14.0,2.2898407,5.009033E-5,927699.4
32.0,-16.0,-12.0,2.3477857,5.1357874E-5,951175.0
32.0,-16.0,-10.0,2.3309085,5.0988685E-5,944337.44
32.0,-16.0,-8.0,2.3757834,5.1970328E-5,962518.0
32.0,-16.0,-6.0,2.2894263,5.0081264E-5,927531.44
32.0,-16.0,-4.0,2.555796,5.5908105E-5,1035447.6
32.0,-16.0,-2.0,2.4499493,5.359271E-5,992565.3
32.0,-16.0,0.0,2.475722,5.4156488E-5,1003006.75
32.0,-16.0,2.0,2.4515383,5.362747E-5,993209.06
32.0,-16.0,4.0,2.5536735,5.5861678E-5,1034587.8
32.0,-16.0,6.0,2.2909663,5.0114948E-5,928155.3
32.0,-16.0,8.0,2.3772354,5.200209E-5,963106.2
32.0,-16.0,10.0,2.3329024,5.1032304E-5,945145.25
32.0,-16.0,12.0,2.3493283,5.139162E-5,951799.94
32.0,-16.0,14.0,2.2913,5.012225E-5,928290.56
32.0,-16.0,16.0,2.2159061,4.8473008E-5,897745.7
32.0,-16.0,18.0,2.1479425,4.69863E-5,870211.1
32.0,-16.0,20.0,2.1756296,4.759196E-5,881428.25
32.0,-16.0,22.0,1.7704492,3.8728624E-5,717274.6
32.0,-16.0,24.0,1.9825665,4.33687E-5,803211.2
32.0,-16.0,26.0,1.7657324,3.8625443E-5,715363.6
32.0,-16.0,28.0,1.7546746,3.8383554E-5,710883.75
32.0,-16.0,30.0,1.7504096,3.8290258E-5,709155.8
32.0,-14.0,-30.0,0,0,0
32.0,-14.0,-28.0,2.5907562,5.6672863E-5,1049611.4
32.0,-14.0,-26.0,2.7001035,5.906484E-5,1093912.1
32.0,-14.0,-24.0,2.874129,6.287165E-5,1164416.2
32.0,-14.0,-22.0,2.6443565,5.784537E-5,1071326.9
32.0,-14.0,-20.0,3.6613455,8.009203E-5,1483346.8
32.0,-14.0,-18.0,2.9104753,6.366673E-5,1179141.5
32.0,-14.0,-16.0,2.7920299,6.1075734E-5,1131154.9
32.0,-14.0,-14.0,3.3256469,7.274862E-5,1347342.9
32.0,-14.0,-12.0,3.3574116,7.344347E-5,1360212.0
32.0,-14.0,-10.0,3.3909178,7.4176416E-5,1373786.5
32.0,-14.0,-8.0,2.8549845,6.245286E-5,1156660.0
32.0,-14.0,-6.0,3.7848604,8.279393E-5,1533387.2
32.0,-14.0,-4.0,3.328993,7.2821815E-5,1348698.5
32.0,-14.0,-2.0,3.7149076,8.126371E-5,1505046.8
32.0,-14.0,0.0,3.3571472,7.343769E-5,1360104.9
32.0,-14.0,2.0,3.7172534,8.1315025E-5,1505997.2
32.0,-14.0,4.0,3.326673,7.2771065E-5,1347758.5
32.0,-14.0,6.0,3.7879074,8.2860584E-5,1534621.8
32.0,-14.0,8.0,2.85645,6.248493E-5,1157253.9
32.0,-14.0,10.0,3.3931065,7.422429E-5,1374673.1
32.0,-14.0,12.0,3.357493,7.344525E-5,1360244.9
32.0,-14.0,14.0,3.3252523,7.273999E-5,1347183.0
32.0,-14.0,16.0,2.7927132,6.109068E-5,1131431.6
32.0,-14.0,18.0,2.9111543,6.368158E-5,1179416.5
32.0,-14.0,20.0,3.6620035,8.010642E-5,1483613.4
32.0,-14.0,22.0,2.6455667,5.7871846E-5,1071817.2
32.0,-14.0,24.0,2.8745625,6.288113E-5,1164591.8
32.0,-14.0,26.0,2.7008758,5.908173E-5,1094224.9
32.0,-14.0,28.0,2.5907571,5.667288E-5,1049611.8
32.0,-14.0,30.0,2.6046894,5.6977653E-5,1055256.2
32.0,-12.0,-30.0,0,0,0
32.0,-12.0,-28.0,6.012583,1.3152542E-4,2435920.2
32.0,-12.0,-26.0,6.190122,1.354091E-4,2507848.0
32.0,-12.0,-24.0,6.136248,1.3423059E-4,2486021.5
32.0,-12.0,-22.0,6.532642,1.4290171E-4,2646615.5
32.0,-12.0,-20.0,6.8791413,1.5048141E-4,2786995.2
32.0,-12.0,-18.0,6.96257,1.5230641E-4,2820795.2
32.0,-12.0,-16.0,7.2559395,1.5872388E-4,2939650.0
32.0,-12.0,-14.0,7.1571774,1.5656344E-4,2899638.0
32.0,-12.0,-12.0,7.446663,1.6289596E-4,3016919.2
32.0,-12.0,-10.0,7.5420356,1.6498224E-4,3055558.2
32.0,-12.0,-8.0,7.6029887,1.6631559E-4,3080252.5
32.0,-12.0,-6.0,7.844484,1.715983E-4,3178091.2
32.0,-12.0,-4.0,7.8971033,1.7274935E-4,3199409.5
32.0,-12.0,-2.0,7.947938,1.7386136E-4,3220004.5
32.0,-12.0,0.0,7.947064,1.7384224E-4,3219650.2
32.0,-12.0,2.0,7.9471607,1.7384435E-4,3219689.5
32.0,-12.0,4.0,7.8975,1.7275802E-4,3199570.0
32.0,-12.0,6.0,7.841284,1.715283E-4,3176794.8
32.0,-12.0,8.0,7.6029353,1.6631442E-4,3080231.0
32.0,-12.0,10.0,7.5410523,1.6496073E-4,3055160.0
32.0,-12.0,12.0,7.4457703,1.6287643E-4,3016557.8
32.0,-12.0,14.0,7.1545334,1.5650562E-4,2898566.8
32.0,-12.0,16.0,7.2555904,1.5871624E-4,2939508.5
32.0,-12.0,18.0,6.9639482,1.5233656E-4,2821353.8
32.0,-12.0,20.0,6.8775334,1.5044624E-4,2786343.8
32.0,-12.0,22.0,6.5307593,1.4286055E-4,2645852.8
32.0,-12.0,24.0,6.135214,1.3420798E-4,2485602.5
32.0,-12.0,26.0,6.1884904,1.353734E-4,2507187.0
32.0,-12.0,28.0,6.0106707,1.3148358E-4,2435145.5
32.0,-12.0,30.0,5.7493987,1.2576826E-4,2329294.5
32.0,-10.0,-30.0,0,0,0
32.0,-10.0,-28.0,14.206646,3.107708E-4,5755639.0
32.0,-10.0,-26.0,14.944031,3.269011E-4,6054381.0
32.0,-10.0,-24.0,15.268201,3.3399233E-4,6185714.0
32.0,-10.0,-22.0,15.43163,3.3756733E-4,6251925.5
32.0,-10.0,-20.0,15.951852,3.4894721E-4,6462686.5
32.0,-10.0,-18.0,16.371092,3.5811806E-4,6632536.0
32.0,-10.0,-16.0,16.496153,3.6085382E-4,6683203.5
32.0,-10.0,-14.0,17.288754,3.7819197E-4,7004315.0
32.0,-10.0,-12.0,17.827997,3.8998792E-4,7222782.5
32.0,-10.0,-10.0,18.02308,3.942554E-4,7301818.0
32.0,-10.0,-8.0,18.203922,3.9821133E-4,7375084.0
32.0,-10.0,-6.0,18.587893,4.066107E-4,7530644.5
32.0,-10.0,-4.0,18.692688,4.0890306E-4,7573101.0
32.0,-10.0,-2.0,18.854948,4.1245253E-4,7638838.5
32.0,-10.0,0.0,18.79768,4.1119976E-4,7615637.0
32.0,-10.0,2.0,18.855324,4.124607E-4,7638990.5
32.0,-10.0,4.0,18.693193,4.0891411E-4,7573305.5
32.0,-10.0,6.0,18.587944,4.066118E-4,7530665.5
32.0,-10.0,8.0,18.204538,3.9822477E-4,7375333.5
32.0,-10.0,10.0,18.024593,3.9428848E-4,7302431.0
32.0,-10.0,12.0,17.827763,3.8998277E-4,7222687.0
32.0,-10.0,14.0,17.289703,3.7821275E-4,7004700.0
32.0,-10.0,16.0,16.494747,3.6082303E-4,6682633.5
32.0,-10.0,18.0,16.370144,3.5809734E-4,6632152.5
32.0,-10.0,20.0,15.949613,3.488982E-4,6461779.5
32.0,-10.0,22.0,15.428217,3.3749267E-4,6250542.5
32.0,-10.0,24.0,15.267126,3.339688E-4,6185279.0
32.0,-10.0,26.0,14.938166,3.2677277E-4,6052004.5
32.0,-10.0,28.0,14.201443,3.1065696E-4,5753531.0
32.0,-10.0,30.0,13.747427,3.0072534E-4,5569592.5
32.0,-8.0,-30.0,0,0,0
32.0,-8.0,-28.0,25.585352,5.596803E-4,1.0365575E7
32.0,-8.0,-26.0,26.310038,5.755328E-4,1.0659172E7
32.0,-8.0,-24.0,27.168274,5.9430674E-4,1.1006875E7
32.0,-8.0,-22.0,27.942957,6.1125297E-4,1.1320728E7
32.0,-8.0,-20.0,28.579433,6.251759E-4,1.1578588E7
32.0,-8.0,-18.0,29.553263,6.4647844E-4,1.1973122E7
32.0,-8.0,-16.0,30.021093,6.567122E-4,1.2162658E7
32.0,-8.0,-14.0,31.056751,6.793673E-4,1.2582242E7
32.0,-8.0,-12.0,31.865599,6.9706084E-4,1.2909935E7
32.0,-8.0,-10.0,32.393368,7.086058E-4,1.3123754E7
32.0,-8.0,-8.0,32.923832,7.2020973E-4,1.3338665E7
32.0,-8.0,-6.0,33.23562,7.270301E-4,1.3464981E7
32.0,-8.0,-4.0,33.751827,7.3832215E-4,1.3674116E7
32.0,-8.0,-2.0,33.76108,7.3852466E-4,1.3677867E7
32.0,-8.0,0.0,33.932446,7.4227323E-4,1.3747292E7
32.0,-8.0,2.0,33.76123,7.3852786E-4,1.3677926E7
32.0,-8.0,4.0,33.752983,7.383474E-4,1.3674584E7
32.0,-8.0,6.0,33.237713,7.2707585E-4,1.3465829E7
32.0,-8.0,8.0,32.924618,7.202269E-4,1.3338983E7
32.0,-8.0,10.0,32.3914,7.0856273E-4,1.3122957E7
32.0,-8.0,12.0,31.868788,6.971306E-4,1.2911227E7
32.0,-8.0,14.0,31.061325,6.7946734E-4,1.2584095E7
32.0,-8.0,16.0,30.021774,6.567271E-4,1.2162934E7
32.0,-8.0,18.0,29.547705,6.4635684E-4,1.1970871E7
32.0,-8.0,20.0,28.575962,6.251E-4,1.1577182E7
32.0,-8.0,22.0,27.93764,6.111366E-4,1.1318573E7
32.0,-8.0,24.0,27.15964,5.9411785E-4,1.1003377E7
32.0,-8.0,26.0,26.303106,5.7538116E-4,1.0656363E7
32.0,-8.0,28.0,25.577177,5.5950147E-4,1.0362263E7
32.0,-8.0,30.0,24.856455,5.4373563E-4,1.0070271E7
32.0,-6.0,-30.0,0,0,0
32.0,-6.0,-28.0,39.326897,8.60277E-4,1.5932784E7
32.0,-6.0,-26.0,40.51663,8.863023E-4,1.6414788E7
32.0,-6.0,-24.0,41.75997,9.1350055E-4,1.6918512E7
32.0,-6.0,-22.0,42.843864,9.372107E-4,1.7357638E7
32.0,-6.0,-20.0,44.20427,9.6696964E-4,1.7908788E7
32.0,-6.0,-18.0,45.569183,9.968271E-4,1.8461766E7
32.0,-6.0,-16.0,46.770264,0.0010231008,1.8948368E7
32.0,-6.0,-14.0,47.81534,0.0010459619,1.9371766E7
32.0,-6.0,-12.0,48.730095,0.0010659721,1.9742368E7
32.0,-6.0,-10.0,49.69758,0.0010871359,2.0134332E7
32.0,-6.0,-8.0,50.74852,0.0011101252,2.0560106E7
32.0,-6.0,-6.0,51.282993,0.0011218169,2.0776642E7
32.0,-6.0,-4.0,51.81711,0.0011335006,2.0993032E7
32.0,-6.0,-2.0,52.138676,0.001140535,2.112331E7
32.0,-6.0,0.0,52.08685,0.0011394012,2.1102314E7
32.0,-6.0,2.0,52.138596,0.0011405331,2.1123278E7
32.0,-6.0,4.0,51.820297,0.0011335704,2.0994324E7
32.0,-6.0,6.0,51.284534,0.0011218507,2.0777266E7
32.0,-6.0,8.0,50.752026,0.0011102019,2.0561526E7
32.0,-6.0,10.0,49.70066,0.0010872033,2.013558E7
32.0,-6.0,12.0,48.734356,0.0010660654,1.9744094E7
32.0,-6.0,14.0,47.819065,0.0010460434,1.9373276E7
32.0,-6.0,16.0,46.76945,0.0010230831,1.894804E7
32.0,-6.0,18.0,45.564777,9.967308E-4,1.845998E7
32.0,-6.0,20.0,44.19912,9.6685695E-4,1.7906702E7
32.0,-6.0,22.0,42.83515,9.370201E-4,1.7354108E7
32.0,-6.0,24.0,41.7483,9.1324514E-4,1.6913784E7
32.0,-6.0,26.0,40.502983,8.860039E-4,1.6409261E7
32.0,-6.0,28.0,39.314587,8.6000765E-4,1.5927796E7
32.0,-6.0,30.0,38.20991,8.358428E-4,1.5480251E7
32.0,-4.0,-30.0,0,0,0
32.0,-4.0,-28.0,56.635956,0.001238913,2.2945326E7
32.0,-4.0,-26.0,58.449425,0.0012785827,2.3680028E7
32.0,-4.0,-24.0,60.13948,0.0013155527,2.4364732E7
32.0,-4.0,-22.0,61.590122,0.0013472856,2.4952442E7
32.0,-4.0,-20.0,64.016716,0.0014003675,2.5935546E7
32.0,-4.0,-18.0,65.31515,0.0014287706,2.6461588E7
32.0,-4.0,-16.0,67.12937,0.0014684569,2.7196598E7
32.0,-4.0,-14.0,68.791824,0.0015048231,2.787012E7
32.0,-4.0,-12.0,70.25118,0.0015367466,2.8461358E7
32.0,-4.0,-10.0,71.78394,0.0015702758,2.9082336E7
32.0,-4.0,-8.0,72.65999,0.0015894393,2.9437256E7
32.0,-4.0,-6.0,74.105545,0.0016210609,3.0022904E7
32.0,-4.0,-4.0,74.39765,0.0016274507,3.0141248E7
32.0,-4.0,-2.0,75.28199,0.0016467955,3.0499524E7
32.0,-4.0,0.0,74.78988,0.0016360307,3.0300154E7
32.0,-4.0,2.0,75.28268,0.0016468107,3.0499804E7
32.0,-4.0,4.0,74.40126,0.0016275297,3.014271E7
32.0,-4.0,6.0,74.10942,0.0016211456,3.0024474E7
32.0,-4.0,8.0,72.66423,0.001589532,2.9438972E7
32.0,-4.0,10.0,71.785164,0.0015703024,2.9082832E7
32.0,-4.0,12.0,70.25833,0.001536903,2.8464256E7
32.0,-4.0,14.0,68.798004,0.0015049581,2.787262E7
32.0,-4.0,16.0,67.12911,0.0014684512,2.7196494E7
32.0,-4.0,18.0,65.30506,0.00142855,2.64575E7
32.0,-4.0,20.0,64.009155,0.001400202,2.5932482E7
32.0,-4.0,22.0,61.577507,0.0013470097,2.494733E7
32.0,-4.0,24.0,60.12373,0.0013152083,2.4358352E7
32.0,-4.0,26.0,58.430576,0.0012781705,2.3672392E7
32.0,-4.0,28.0,56.62054,0.0012385759,2.293908E7
32.0,-4.0,30.0,55.022198,0.0012036121,2.2291532E7
32.0,-2.0,-30.0,0,0,0
32.0,-2.0,-28.0,69.79116,0.0015266836,2.8274988E7
32.0,-2.0,-26.0,72.02394,0.0015755257,2.917957E7
32.0,-2.0,-24.0,74.16494,0.0016223601,3.0046966E7
32.0,-2.0,-22.0,76.07643,0.001664174,3.0821382E7
32.0,-2.0,-20.0,78.601204,0.0017194034,3.184426E7
32.0,-2.0,-18.0,80.48134,0.0017605316,3.2605976E7
32.0,-2.0,-16.0,82.49939,0.0018046765,3.3423562E7
32.0,-2.0,-14.0,84.74645,0.001853831,3.4333928E7
32.0,-2.0,-12.0,86.76759,0.0018980436,3.5152772E7
32.0,-2.0,-10.0,88.53882,0.0019367891,3.587036E7
32.0,-2.0,-8.0,89.58955,0.0019597737,3.6296044E7
32.0,-2.0,-6.0,91.17845,0.0019945311,3.6939772E7
32.0,-2.0,-4.0,91.84816,0.002009181,3.7211096E7
32.0,-2.0,-2.0,92.58985,0.0020254056,3.7511584E7
32.0,-2.0,0.0,92.39289,0.002021097,3.7431784E7
32.0,-2.0,2.0,92.59021,0.0020254136,3.7511728E7
32.0,-2.0,4.0,91.85374,0.002009303,3.7213352E7
32.0,-2.0,6.0,91.18055,0.001994577,3.694062E7
32.0,-2.0,8.0,89.596214,0.0019599197,3.6298748E7
32.0,-2.0,10.0,88.54478,0.0019369195,3.5872772E7
32.0,-2.0,12.0,86.77659,0.0018982402,3.5156412E7
32.0,-2.0,14.0,84.75515,0.0018540212,3.4337452E7
32.0,-2.0,16.0,82.49899,0.0018046678,3.34234E7
32.0,-2.0,18.0,80.47465,0.0017603852,3.2603264E7
32.0,-2.0,20.0,78.592606,0.0017192153,3.1840776E7
32.0,-2.0,22.0,76.06102,0.0016638369,3.0815138E7
32.0,-2.0,24.0,74.14763,0.0016219814,3.0039954E7
32.0,-2.0,26.0,72.00053,0.0015750136,2.9170084E7
32.0,-2.0,28.0,69.771225,0.0015262475,2.826691E7
32.0,-2.0,30.0,67.885666,0.0014850008,2.7503E7
32.0,0.0,-30.0,0,0,0
32.0,0.0,-28.0,73.91781,0.0016169541,2.9946846E7
32.0,0.0,-26.0,76.14291,0.0016656283,3.0848316E7
32.0,0.0,-24.0,78.444595,0.0017159778,3.1780814E7
32.0,0.0,-22.0,80.53036,0.0017616038,3.2625834E7
32.0,0.0,-20.0,83.24353,0.0018209545,3.372504E7
32.0,0.0,-18.0,85.25952,0.0018650544,3.4541792E7
32.0,0.0,-16.0,87.4442,0.0019128444,3.5426888E7
32.0,0.0,-14.0,89.74768,0.001963233,3.6360112E7
32.0,0.0,-12.0,91.79807,0.0020080854,3.71908E7
32.0,0.0,-10.0,93.67863,0.0020492226,3.7952684E7
32.0,0.0,-8.0,94.88244,0.002075556,3.8440396E7
32.0,0.0,-6.0,96.56656,0.002112396,3.9122692E7
32.0,0.0,-4.0,97.21091,0.0021264912,3.9383744E7
32.0,0.0,-2.0,98.049034,0.0021448254,3.97233E7
32.0,0.0,0.0,97.79295,0.0021392235,3.9619548E7
32.0,0.0,2.0,98.05121,0.002144873,3.972418E7
32.0,0.0,4.0,97.21351,0.0021265482,3.9384796E7
32.0,0.0,6.0,96.571686,0.0021125083,3.9124768E7
32.0,0.0,8.0,94.888756,0.002075694,3.8442952E7
32.0,0.0,10.0,93.68715,0.002049409,3.7956136E7
32.0,0.0,12.0,91.80336,0.002008201,3.7192944E7
32.0,0.0,14.0,89.74814,0.001963243,3.6360296E7
32.0,0.0,16.0,87.439766,0.0019127472,3.5425088E7
32.0,0.0,18.0,85.25072,0.0018648618,3.4538228E7
32.0,0.0,20.0,83.23431,0.0018207527,3.3721304E7
32.0,0.0,22.0,80.514694,0.0017612611,3.2619488E7
32.0,0.0,24.0,78.422485,0.0017154941,3.1771858E7
32.0,0.0,26.0,76.12239,0.0016651793,3.0840002E7
32.0,0.0,28.0,73.8982,0.0016165251,2.99389E7
32.0,0.0,30.0,71.95103,0.0015739306,2.9150028E7
32.0,2.0,-30.0,0,0,0
32.0,2.0,-28.0,68.96491,0.0015086093,2.7940242E7
32.0,2.0,-26.0,71.06729,0.0015545989,2.8791994E7
32.0,2.0,-24.0,73.110825,0.0015993012,2.9619904E7
32.0,2.0,-22.0,75.44492,0.0016503597,3.0565534E7
32.0,2.0,-20.0,77.39681,0.0016930574,3.1356318E7
32.0,2.0,-18.0,79.75147,0.0017445656,3.2310276E7
32.0,2.0,-16.0,81.87165,0.0017909447,3.3169242E7
32.0,2.0,-14.0,83.778656,0.0018326604,3.394184E7
32.0,2.0,-12.0,85.46775,0.0018696095,3.4626156E7
32.0,2.0,-10.0,87.22626,0.0019080768,3.5338592E7
32.0,2.0,-8.0,88.77812,0.0019420239,3.5967308E7
32.0,2.0,-6.0,89.90334,0.0019666383,3.642318E7
32.0,2.0,-4.0,90.91009,0.0019886608,3.6831048E7
32.0,2.0,-2.0,91.236984,0.0019958117,3.6963484E7
32.0,2.0,0.0,91.525536,0.0020021235,3.7080388E7
32.0,2.0,2.0,91.23781,0.0019958296,3.6963816E7
32.0,2.0,4.0,90.91413,0.001988749,3.6832684E7
32.0,2.0,6.0,89.90769,0.0019667333,3.642494E7
32.0,2.0,8.0,88.7837,0.0019421458,3.5969568E7
32.0,2.0,10.0,87.23009,0.0019081605,3.5340144E7
32.0,2.0,12.0,85.475296,0.0018697744,3.4629212E7
32.0,2.0,14.0,83.78367,0.0018327701,3.3943868E7
32.0,2.0,16.0,81.8703,0.001790915,3.3168694E7
32.0,2.0,18.0,79.74084,0.0017443331,3.230597E7
32.0,2.0,20.0,77.387825,0.0016928609,3.1352678E7
32.0,2.0,22.0,75.42959,0.0016500244,3.0559324E7
32.0,2.0,24.0,73.09012,0.0015988484,2.9611518E7
32.0,2.0,26.0,71.046135,0.0015541362,2.8783422E7
32.0,2.0,28.0,68.94452,0.0015081632,2.793198E7
32.0,2.0,30.0,67.150795,0.0014689255,2.7205276E7
32.0,4.0,-30.0,0,0,0
32.0,4.0,-28.0,54.809303,0.001198955,2.220528E7
32.0,4.0,-26.0,56.41084,0.0012339887,2.2854122E7
32.0,4.0,-24.0,58.1283,0.0012715581,2.354993E7
32.0,4.0,-22.0,59.538628,0.0013024091,2.4121304E7
32.0,4.0,-20.0,61.92271,0.001354561,2.5087186E7
32.0,4.0,-18.0,63.332127,0.001385392,2.5658192E7
32.0,4.0,-16.0,65.173645,0.0014256752,2.640426E7
32.0,4.0,-14.0,66.59249,0.0014567126,2.6979086E7
32.0,4.0,-12.0,67.80016,0.0014831305,2.746836E7
32.0,4.0,-10.0,69.28674,0.0015156495,2.807063E7
32.0,4.0,-8.0,70.44636,0.001541016,2.854043E7
32.0,4.0,-6.0,71.64802,0.0015673024,2.902727E7
